0.000000 0.000000 0.000000
0.000000 0.000000 0.000000
-13.264836 6.878777 -1.313986
0.000000 0.000000 0.000000
-13.221353 6.961987 -1.313986
-13.217018 7.012821 -1.315738
-13.159780 7.035526 -1.312234
-13.146382 7.081559 -1.313110
-13.089050 7.103815 -1.309607
-13.065421 7.147182 -1.309607
0.000000 0.000000 0.000000
0.000000 0.000000 0.000000
-12.970132 7.257678 -1.306979
0.000000 0.000000 0.000000
0.000000 0.000000 0.000000
0.000000 0.000000 0.000000
0.000000 0.000000 0.000000
0.000000 0.000000 0.000000
0.000000 0.000000 0.000000
0.000000 0.000000 0.000000
0.000000 0.000000 0.000000
0.000000 0.000000 0.000000
0.000000 0.000000 0.000000
-1.158823 0.701808 -0.119135
-1.131099 0.689884 -0.116507
-1.145903 0.703862 -0.118259
-1.126742 0.696977 -0.116507
-1.124547 0.700514 -0.116507
-1.105464 0.693456 -0.114755
0.000000 0.000000 0.000000
0.000000 0.000000 0.000000
0.000000 0.000000 0.000000
0.000000 0.000000 0.000000
0.000000 0.000000 0.000000
0.000000 0.000000 0.000000
0.000000 0.000000 0.000000
0.000000 0.000000 0.000000
0.000000 0.000000 0.000000
0.000000 0.000000 0.000000
0.000000 0.000000 0.000000
0.000000 0.000000 0.000000
0.000000 0.000000 0.000000
0.000000 0.000000 0.000000
0.000000 0.000000 0.000000
0.000000 0.000000 0.000000
0.000000 0.000000 0.000000
0.000000 0.000000 0.000000
0.000000 0.000000 0.000000
0.000000 0.000000 0.000000
0.000000 0.000000 0.000000
0.000000 0.000000 0.000000
0.000000 0.000000 0.000000
0.000000 0.000000 0.000000
0.000000 0.000000 0.000000
0.000000 0.000000 0.000000
-1.058519 0.796783 -0.116507
-1.063951 0.806120 -0.117383
0.000000 0.000000 0.000000
0.000000 0.000000 0.000000
0.000000 0.000000 0.000000
0.000000 0.000000 0.000000
0.000000 0.000000 0.000000
0.000000 0.000000 0.000000
0.000000 0.000000 0.000000
0.000000 0.000000 0.000000
0.000000 0.000000 0.000000
0.000000 0.000000 0.000000
0.000000 0.000000 0.000000
0.000000 0.000000 0.000000
0.000000 0.000000 0.000000
0.000000 0.000000 0.000000
0.000000 0.000000 0.000000
0.000000 0.000000 0.000000
0.000000 0.000000 0.000000
0.000000 0.000000 0.000000
0.000000 0.000000 0.000000
0.000000 0.000000 0.000000
0.000000 0.000000 0.000000
0.000000 0.000000 0.000000
0.000000 0.000000 0.000000
0.000000 0.000000 0.000000
0.000000 0.000000 0.000000
0.000000 0.000000 0.000000
0.000000 0.000000 0.000000
0.000000 0.000000 0.000000
0.000000 0.000000 0.000000
0.000000 0.000000 0.000000
0.000000 0.000000 0.000000
0.000000 0.000000 0.000000
0.000000 0.000000 0.000000
0.000000 0.000000 0.000000
0.000000 0.000000 0.000000
0.000000 0.000000 0.000000
0.000000 0.000000 0.000000
0.000000 0.000000 0.000000
0.000000 0.000000 0.000000
0.000000 0.000000 0.000000
0.000000 0.000000 0.000000
0.000000 0.000000 0.000000
0.000000 0.000000 0.000000
0.000000 0.000000 0.000000
0.000000 0.000000 0.000000
0.000000 0.000000 0.000000
0.000000 0.000000 0.000000
0.000000 0.000000 0.000000
0.000000 0.000000 0.000000
0.000000 0.000000 0.000000
0.000000 0.000000 0.000000
0.000000 0.000000 0.000000
0.000000 0.000000 0.000000
0.000000 0.000000 0.000000
0.000000 0.000000 0.000000
0.000000 0.000000 0.000000
0.000000 0.000000 0.000000
0.000000 0.000000 0.000000
0.000000 0.000000 0.000000
0.000000 0.000000 0.000000
0.000000 0.000000 0.000000
0.000000 0.000000 0.000000
0.000000 0.000000 0.000000
0.000000 0.000000 0.000000
0.000000 0.000000 0.000000
0.000000 0.000000 0.000000
0.000000 0.000000 0.000000
0.000000 0.000000 0.000000
0.000000 0.000000 0.000000
0.000000 0.000000 0.000000
0.000000 0.000000 0.000000
-7.048489 8.441868 -0.967094
-6.932889 8.356635 -0.954830
-6.817891 8.270764 -0.942566
-6.886557 8.407738 -0.955706
-6.828668 8.390701 -0.951326
-6.852384 8.474079 -0.958334
-6.950514 8.650875 -0.975854
-6.830078 8.555893 -0.962714
-6.685551 8.429019 -0.946070
-6.640538 8.426510 -0.943442
-6.571046 8.392426 -0.937310
-6.507950 8.365850 -0.932054
-6.469450 8.370493 -0.930302
-6.449191 8.398676 -0.931178
-6.410686 8.403056 -0.929426
-6.384258 8.423154 -0.929426
-6.321813 8.395421 -0.924170
-6.277502 8.391312 -0.921542
-6.239226 8.395000 -0.919791
-6.206903 8.406549 -0.918914
-6.151005 8.385842 -0.914535
-6.130498 8.413176 -0.915411
-6.080669 8.400118 -0.911907
-0.726975 1.010948 -0.109499
-0.752747 1.053757 -0.113879
-5.972408 8.416432 -0.907527
0.000000 0.000000 0.000000
-5.913693 8.445632 -0.906651
-5.864381 8.431456 -0.903147
-5.836387 8.450858 -0.903147
-5.821081 8.485580 -0.904899
-5.800005 8.512057 -0.905775
-5.773232 8.530238 -0.905775
-5.724177 8.515263 -0.902271
-5.669742 8.491779 -0.897891
-0.935918 1.411340 -0.148918
-0.936959 1.422593 -0.149794
-0.921578 1.408856 -0.148042
-0.922575 1.420098 -0.148918
-0.907308 1.406248 -0.147166
-0.908260 1.417479 -0.148042
-0.909150 1.428730 -0.148918
-0.888692 1.406316 -0.146290
-0.878975 1.400663 -0.145415
-0.885108 1.420326 -0.147166
-0.875399 1.414629 -0.146290
-0.870951 1.417372 -0.146290
-0.861305 1.411598 -0.145415
-0.862028 1.422817 -0.146290
-0.857554 1.425518 -0.146290
-0.858179 1.436757 -0.147166
-0.853661 1.439446 -0.147166
-0.844080 1.433537 -0.146290
-0.834296 1.427727 -0.145415
-0.814811 1.404491 -0.142787
-0.785535 1.363883 -0.138407
0.000000 0.000000 0.000000
0.000000 0.000000 0.000000
0.000000 0.000000 0.000000
-0.773198 1.382341 -0.139283
-0.797864 1.437018 -0.144539
-0.788537 1.430794 -0.143663
-0.788819 1.442003 -0.144539
-0.774779 1.426965 -0.142787
-0.756115 1.403084 -0.140159
-0.695325 1.300044 -0.129647
-0.700579 1.319820 -0.131399
-4.512860 8.566650 -0.851463
-4.485926 8.580785 -0.851463
-4.486473 8.647889 -0.856719
-4.431922 8.608802 -0.851463
-4.309687 8.436392 -0.833067
-4.224617 8.334378 -0.821680
-4.225266 8.401006 -0.826935
-4.256678 8.530111 -0.838323
-4.176817 8.436316 -0.827811
-4.123939 8.395750 -0.822555
-4.091719 8.400421 -0.821680
-4.108646 8.502929 -0.830439
-4.193866 8.749349 -0.853215
0.000000 0.000000 0.000000
-0.696884 1.477604 -0.143663
-0.683797 1.461740 -0.141911
-0.683393 1.472917 -0.142787
-0.670434 1.456959 -0.141035
-0.669989 1.468120 -0.141911
-0.661267 1.461142 -0.141035
-0.656673 1.463212 -0.141035
-0.648023 1.456167 -0.140159
-0.647466 1.467309 -0.141035
-0.638861 1.460210 -0.140159
-0.634015 1.462320 -0.140159
-0.629418 1.464305 -0.140159
-0.624814 1.466275 -0.140159
-0.620205 1.468231 -0.140159
-0.607894 1.451795 -0.138407
-0.610968 1.472098 -0.140159
-0.602551 1.464798 -0.139283
-0.597945 1.466684 -0.139283
-0.593334 1.468555 -0.139283
-0.588718 1.470412 -0.139283
-0.580423 1.462995 -0.138407
-0.579468 1.474082 -0.139283
-0.567603 1.457330 -0.137531
-0.570194 1.477694 -0.139283
-0.561992 1.470173 -0.138407
-0.557371 1.471931 -0.138407
-0.549245 1.464348 -0.137531
-0.548112 1.475404 -0.138407
-0.540034 1.467770 -0.137531
-0.538831 1.478819 -0.138407
-0.530801 1.471134 -0.137531
-0.529528 1.482175 -0.138407
-0.524869 1.483831 -0.138407
-0.516912 1.476071 -0.137531
-0.512274 1.477688 -0.137531
-0.504395 1.469868 -0.136655
-0.502978 1.480878 -0.137531
-0.495150 1.473008 -0.136655
-0.493664 1.484008 -0.137531
-0.489000 1.485552 -0.137531
-0.484071 1.487165 -0.137531
-0.476342 1.479197 -0.136655
-0.477479 1.499753 -0.138407
-0.469773 1.491743 -0.137531
-0.465344 1.493131 -0.137531
-0.460651 1.494585 -0.137531
-0.455953 1.496025 -0.137531
-0.451251 1.497450 -0.137531
-0.443701 1.489314 -0.136655
-0.444648 1.509812 -0.138407
-0.437119 1.501637 -0.137531
-0.429644 1.493429 -0.136655
-0.427675 1.504354 -0.137531
-0.420253 1.496099 -0.136655
-0.418214 1.507011 -0.137531
-0.413478 1.508317 -0.137531
-0.408737 1.509609 -0.137531
-0.403993 1.510885 -0.137531
-0.396439 1.502585 -0.136655
-0.396738 1.523103 -0.138407
-0.386990 1.505046 -0.136655
-0.389611 1.535221 -0.139283
-0.379946 1.517111 -0.137531
-0.377568 1.527968 -0.138407
-0.370406 1.519468 -0.137531
-0.365631 1.520625 -0.137531
-0.360852 1.521766 -0.137531
-0.358337 1.532592 -0.138407
-0.353521 1.533710 -0.138407
-0.350908 1.544527 -0.139283
-0.343878 1.535901 -0.138407
-0.341196 1.546701 -0.139283
-0.336336 1.547766 -0.139283
-0.333557 1.558555 -0.140159
-0.330712 1.569343 -0.141035
-0.327804 1.580128 -0.141911
-1.791556 8.774408 -0.787516
-1.789487 8.906958 -0.798904
-1.790819 9.069207 -0.812920
-1.760416 9.065010 -0.812044
-1.674013 8.767168 -0.784888
-1.635438 8.713639 -0.779632
-1.613752 8.758202 -0.783136
-1.598651 8.831844 -0.789268
-1.522076 8.562204 -0.764740
-1.579093 9.047792 -0.807664
-1.555708 9.082164 -0.810292
-1.532118 9.116478 -0.812920
-1.508308 9.140641 -0.814672
-1.482764 9.165002 -0.816424
-1.402484 8.844939 -0.787516
-1.331876 8.573684 -0.762988
-1.387333 9.119480 -0.811168
-1.358678 9.123794 -0.811168
-1.322824 9.078730 -0.806788
-1.291487 9.063116 -0.805036
-1.250640 8.978332 -0.797152
-1.227799 9.021699 -0.800656
-1.146960 8.630522 -0.765616
-1.163401 8.969963 -0.795400
-1.136148 8.993537 -0.797152
-1.107890 8.997062 -0.797152
-1.066567 8.891701 -0.787516
-1.035159 8.865326 -0.784888
-0.993814 8.749759 -0.774376
-0.980533 8.881556 -0.785764
-0.955814 8.914307 -0.788392
-0.930894 8.946989 -0.791020
-0.896781 8.890403 -0.785764
-0.861099 8.813861 -0.778756
-0.833407 8.816522 -0.778756
-0.820208 8.977821 -0.792772
-0.788496 8.940661 -0.789268
-0.731707 8.605619 -0.759484
-0.707925 8.647589 -0.762988
-0.702636 8.927834 -0.787516
-0.664044 8.810914 -0.777004
-0.634206 8.783150 -0.774376
-0.611411 8.854665 -0.780508
-0.575081 8.727321 -0.769120
-0.551401 8.788737 -0.774376
-0.526159 8.830202 -0.777880
-0.492239 8.722407 -0.768244
-0.464836 8.723910 -0.768244
-0.439424 8.765124 -0.771748
-0.415623 8.846066 -0.778756
-0.387152 8.867300 -0.780508
-0.362521 8.948100 -0.787516
-0.320274 8.570919 -0.754228
-0.292667 8.551972 -0.752476
-0.266724 8.582720 -0.755104
-0.241704 8.653218 -0.761236
-0.213285 8.604142 -0.756856
-0.191645 8.853750 -0.778756
-0.167148 9.033587 -0.794524
-0.137999 8.984265 -0.790144
-0.110015 9.004577 -0.791896
-0.081818 9.014839 -0.792772
-0.053262 8.975206 -0.789268
-0.024482 8.766137 -0.770872
0.004689 8.955440 -0.787516
0.031767 8.666497 -0.762112
0.059059 8.676316 -0.762988
0.086018 8.646204 -0.760360
0.113313 8.655852 -0.761236
0.141150 8.695294 -0.764740
0.168469 8.694808 -0.764740
0.201165 8.933253 -0.785764
0.228715 8.912661 -0.784012
0.253275 8.792409 -0.773500
0.278985 8.731831 -0.768244
0.310611 8.850375 -0.778756
0.341072 8.919037 -0.784888
0.371977 8.987593 -0.791020
0.400656 8.996331 -0.791896
0.427017 8.955227 -0.788392
0.450600 8.864303 -0.780508
0.473070 8.763372 -0.771748
0.502874 8.801624 -0.775252
0.533522 8.849719 -0.779632
0.564129 8.867785 -0.781384
0.595966 8.925605 -0.786640
0.619990 8.844082 -0.779632
0.647042 8.832155 -0.778756
0.676277 8.869927 -0.782260
0.701772 8.837968 -0.779632
0.728712 8.825792 -0.778756
0.744526 8.684507 -0.766492
0.777096 8.741660 -0.771748
0.815516 8.858211 -0.782260
0.836729 8.786188 -0.776128
0.877007 8.912395 -0.787516
0.901985 8.879864 -0.784888
0.921573 8.797728 -0.777880
0.962037 8.913637 -0.788392
0.995534 8.960074 -0.792772
1.021840 8.927032 -0.790144
1.046391 8.894098 -0.787516
1.070741 8.861098 -0.784888
1.102254 8.887348 -0.787516
1.118853 8.794904 -0.779632
1.138747 8.732079 -0.774376
1.163538 8.708710 -0.772624
1.188189 8.685273 -0.770872
1.219615 8.711093 -0.773500
1.272394 8.884716 -0.789268
1.297412 8.860962 -0.787516
1.325245 8.856841 -0.787516
1.360634 8.891786 -0.791020
1.396253 8.936678 -0.795400
1.427456 8.951922 -0.797152
1.457170 8.957226 -0.798028
1.456056 8.785795 -0.783136
1.491946 8.830290 -0.787516
1.526299 8.854743 -0.790144
1.552385 8.840094 -0.789268
1.557348 8.707696 -0.777880
1.573991 8.643957 -0.772624
1.626553 8.776097 -0.784888
1.668883 8.849256 -0.791896
1.698555 8.853752 -0.792772
1.726359 8.848372 -0.792772
1.756090 8.852675 -0.793648
1.781926 8.837350 -0.792772
1.801676 8.792674 -0.789268
1.837414 8.825980 -0.792772
1.873374 8.859149 -0.796276
1.907474 8.882438 -0.798904
1.943288 8.905261 -0.801532
1.975563 8.918564 -0.803284
2.009502 8.931400 -0.805036
2.041984 8.944468 -0.806788
2.055041 8.880137 -0.801532
2.096585 8.931827 -0.806788
2.126940 8.934887 -0.807664
2.150327 8.908793 -0.805912
2.175935 8.892318 -0.805036
2.201464 8.875769 -0.804160
2.251192 8.955758 -0.812044
2.254727 8.852110 -0.803284
2.265104 8.777462 -0.797152
2.332977 8.924507 -0.811168
2.377869 8.974496 -0.816424
2.421540 9.024710 -0.821680
2.431595 8.949766 -0.815548
0.000000 0.000000 0.000000
2.824478 10.143465 -0.925922
2.861733 10.153719 -0.927674
2.893616 10.144679 -0.927674
2.925470 10.135539 -0.927674
2.960093 10.135859 -0.928550
2.991924 10.126509 -0.928550
3.024806 10.127132 -0.929426
3.053723 10.108045 -0.928550
3.079640 10.079349 -0.926798
3.108352 10.060104 -0.925922
3.135754 10.030725 -0.924170
3.170246 10.030325 -0.925046
3.653506 11.434167 -1.055569
3.683284 11.403674 -1.053817
3.716003 11.382576 -1.052941
3.748626 11.361384 -1.052065
3.777991 11.330654 -1.050313
3.810391 11.309288 -1.049437
3.845904 11.297260 -1.049437
3.878134 11.275702 -1.048561
3.912232 11.253373 -1.047685
3.947564 11.241028 -1.047685
3.976202 11.209792 -1.045933
4.008042 11.187865 -1.045057
4.039779 11.165853 -1.044181
4.067998 11.134394 -1.042429
4.106404 11.130905 -1.043305
4.134401 11.099278 -1.041553
4.165747 11.076911 -1.040677
4.196987 11.054457 -1.039801
4.224563 11.022614 -1.038049
4.259168 11.009288 -1.038049
4.290114 10.986573 -1.037173
4.320959 10.963772 -1.036297
4.351697 10.940887 -1.035421
4.386045 10.927163 -1.035421
4.412871 10.894866 -1.033669
4.439542 10.862505 -1.031917
4.471743 10.838512 -1.031041
4.505769 10.824411 -1.031041
4.532036 10.791836 -1.029289
4.565920 10.777543 -1.029289
4.591925 10.744825 -1.027537
4.625661 10.730346 -1.027537
4.655375 10.706626 -1.026661
4.688985 10.691949 -1.026661
4.714496 10.658944 -1.024909
4.747957 10.644081 -1.024909
4.773202 10.610941 -1.023157
4.806512 10.595895 -1.023157
4.835631 10.571685 -1.022282
4.877166 10.574531 -1.024033
4.897759 10.532060 -1.021405
4.930825 10.516620 -1.021405
4.955318 10.483068 -1.019653
4.992516 10.476440 -1.020530
5.016780 10.442744 -1.018777
5.049560 10.426933 -1.018777
5.084107 10.410132 -1.018777
5.112390 10.385170 -1.017902
5.140561 10.360134 -1.017025
5.173085 10.343932 -1.017025
5.196587 10.309840 -1.015274
5.233460 10.302345 -1.016150
5.261264 10.276985 -1.015274
5.288955 10.251554 -1.014398
5.325733 10.243725 -1.015274
5.348640 10.209295 -1.013522
5.376035 10.183634 -1.012645
5.408004 10.166693 -1.012645
5.439915 10.149653 -1.012645
5.467044 10.123747 -1.011770
5.495821 10.096814 -1.010894
5.522722 10.070765 -1.010018
5.554336 10.053364 -1.010018
5.581045 10.027161 -1.009142
5.612522 10.009577 -1.009142
5.639039 9.983222 -1.008266
5.675299 9.974117 -1.009142
5.696701 9.938951 -1.007390
5.727895 9.921007 -1.007390
5.744013 9.877128 -1.004762
5.786807 9.875216 -1.006514
5.807673 9.839831 -1.004762
5.843650 9.830098 -1.005638
5.869384 9.803145 -1.004762
5.889868 9.767595 -1.003010
5.915352 9.740530 -1.002134
5.945921 9.721900 -1.002134
5.971213 9.694689 -1.001258
6.001638 9.675882 -1.001258
6.037287 9.665427 -1.002134
6.051708 9.621118 -0.999506
6.081903 9.602059 -0.999506
6.106684 9.574505 -0.998630
6.142114 9.563656 -0.999506
6.161308 9.527584 -0.997754
6.196648 9.516527 -0.998630
6.215589 9.480352 -0.996878
6.256320 9.477404 -0.998630
6.269524 9.432812 -0.996002
6.299121 9.413074 -0.996002
6.330304 9.392132 -0.996002
6.359777 9.372199 -0.996002
6.379582 9.334607 -0.994250
6.408875 9.314520 -0.994250
6.430811 9.287275 -0.993374
6.454262 9.258853 -0.992498
6.483315 9.238531 -0.992498
6.506562 9.209980 -0.991622
6.535462 9.189495 -0.991622
6.564298 9.168919 -0.991622
6.581425 9.132087 -0.989870
6.610080 9.111367 -0.989870
6.640260 9.089396 -0.989870
6.662879 9.060466 -0.988994
6.685382 9.031483 -0.988118
6.707773 9.002446 -0.987242
6.730047 8.973357 -0.986366
6.758203 8.952170 -0.986366
6.774238 8.915033 -0.984614
6.808262 8.901622 -0.985490
6.824043 8.864400 -0.983738
6.845758 8.835041 -0.982862
6.867353 8.805638 -0.981986
6.888831 8.776185 -0.981110
6.904016 8.738868 -0.979358
6.925238 8.709337 -0.978482
6.952568 8.687535 -0.978482
6.979825 8.665652 -0.978482
7.008521 8.642460 -0.978482
7.023038 8.604965 -0.976730
7.050039 8.582857 -0.976730
7.070623 8.552987 -0.975854
7.103828 8.538391 -0.976730
7.117826 8.500758 -0.974978
7.144498 8.478353 -0.974978
7.164654 8.448270 -0.974102
7.191162 8.425717 -0.974102
7.211100 8.395532 -0.973226
7.237442 8.372834 -0.973226
7.257175 8.342538 -0.972350
7.283346 8.319699 -0.972350
7.302861 8.289304 -0.971474
7.322257 8.258868 -0.970598
7.341537 8.228388 -0.969722
7.360698 8.197869 -0.968846
7.386414 8.174706 -0.968846
7.406778 8.142799 -0.967970
7.432321 8.119492 -0.967970
7.451046 8.088773 -0.967094
7.462878 8.050712 -0.965342
7.488132 8.027228 -0.965342
7.506494 7.996403 -0.964466
7.538417 7.980023 -0.965342
7.542862 7.934640 -0.962714
7.567754 7.910902 -0.962714
7.592568 7.887090 -0.962714
7.617307 7.863199 -0.962714
7.635021 7.832095 -0.961838
7.652611 7.800960 -0.960962
7.677083 7.776878 -0.960962
7.694456 7.745656 -0.960086
7.718750 7.721447 -0.960086
7.735907 7.690134 -0.959210
7.760026 7.665794 -0.959210
7.769855 7.627419 -0.957458
7.800908 7.609929 -0.958334
7.810471 7.571519 -0.956582
7.841395 7.553853 -0.957458
7.857891 7.522294 -0.956582
7.881486 7.497569 -0.956582
7.890522 7.459086 -0.954830
7.913915 7.434262 -0.954830
7.923960 7.394383 -0.953078
7.947150 7.369454 -0.953078
7.964219 7.336308 -0.952202
7.987226 7.311254 -0.952202
7.994146 7.274116 -0.950450
8.016961 7.248963 -0.950450
8.032285 7.217085 -0.949574
8.054916 7.191817 -0.949574
8.062569 7.153252 -0.947822
8.085000 7.127889 -0.947822
8.099862 7.095887 -0.946946
8.122113 7.070407 -0.946946
8.137980 7.036921 -0.946070
8.152493 7.004825 -0.945194
8.174457 6.979180 -0.945194
8.188748 6.947019 -0.944318
8.202914 6.914839 -0.943442
8.224596 6.889037 -0.943442
8.238544 6.856790 -0.942566
8.252366 6.824527 -0.941690
8.281464 6.804890 -0.942566
8.295084 6.772541 -0.941690
8.316318 6.746449 -0.941690
8.329718 6.714036 -0.940814
8.350768 6.687835 -0.940814
8.356149 6.649160 -0.939062
8.392624 6.635233 -0.940814
8.405593 6.602683 -0.939938
8.427444 6.574770 -0.939938
8.432310 6.536058 -0.938186
8.460695 6.515610 -0.939062
8.465300 6.476894 -0.937310
8.501465 6.462325 -0.939062
8.505828 6.423576 -0.937310
8.533934 6.402803 -0.938186
8.546021 6.370006 -0.937310
8.573996 6.349056 -0.938186
8.585874 6.316187 -0.937310
8.597633 6.283302 -0.936434
8.625390 6.262115 -0.937310
8.636943 6.229157 -0.936434
8.664566 6.207796 -0.937310
8.685103 6.179031 -0.937310
8.704474 6.151713 -0.937310
8.731913 6.130058 -0.938186
8.759296 6.108295 -0.939062
8.762065 6.069404 -0.937310
8.789295 6.047496 -0.938186
8.791802 6.008609 -0.936434
8.818880 5.986552 -0.937310
8.821120 5.947685 -0.935558
8.839764 5.919940 -0.935558
8.842755 5.879565 -0.933806
8.861184 5.851753 -0.933806
8.879523 5.823888 -0.933806
8.881081 5.785090 -0.932054
8.899213 5.757159 -0.932054
8.908874 5.723790 -0.931178
8.918415 5.690413 -0.930302
8.919417 5.651705 -0.928550
8.911835 5.607742 -0.925922
8.937858 5.584993 -0.926798
8.921503 5.535875 -0.923294
8.930368 5.502596 -0.922418
8.930616 5.464117 -0.920667
8.939223 5.430863 -0.919791
8.939182 5.392459 -0.918038
8.947535 5.359228 -0.917162
8.955765 5.326003 -0.916287
8.946717 5.282648 -0.913659
8.954675 5.249479 -0.912783
8.945294 5.206285 -0.910155
8.961608 5.178155 -0.910155
8.951908 5.135108 -0.907527
8.959339 5.102031 -0.906651
8.966651 5.068959 -0.905775
8.974724 5.034321 -0.904899
8.973090 4.996406 -0.903147
8.979157 4.964942 -0.902271
8.968511 4.922331 -0.899643
8.983930 4.894133 -0.899643
8.972975 4.851669 -0.897015
8.988173 4.823453 -0.897015
8.968112 4.776463 -0.893511
8.992709 4.751352 -0.894387
8.981126 4.709197 -0.891759
8.995874 4.680960 -0.891759
8.983984 4.638962 -0.889131
8.989644 4.606179 -0.888255
8.968554 4.559853 -0.884751
8.991730 4.536139 -0.885627
8.979212 4.494494 -0.882999
8.993288 4.466260 -0.882999
8.980465 4.424783 -0.880371
8.994323 4.396545 -0.880371
8.990165 4.359571 -0.878619
8.994839 4.326990 -0.877743
8.990406 4.290132 -0.875991
8.994835 4.257607 -0.875115
8.981116 4.216624 -0.872487
8.995050 4.186816 -0.872487
8.990069 4.150187 -0.870735
8.994005 4.117779 -0.869859
8.997828 4.085382 -0.868983
8.992451 4.048917 -0.867231
8.996032 4.016582 -0.866355
8.981278 3.976204 -0.863727
8.984604 3.943967 -0.862851
8.969549 3.903793 -0.860223
8.981769 3.875597 -0.860223
8.966424 3.835604 -0.857595
8.978430 3.807419 -0.857595
8.971979 3.771474 -0.855843
8.965394 3.735604 -0.854091
8.967877 3.703619 -0.853215
8.970250 3.671651 -0.852339
8.963279 3.635965 -0.850587
8.965413 3.604074 -0.849711
8.958183 3.568515 -0.847959
8.960084 3.536699 -0.847083
8.943319 3.497645 -0.844455
8.954263 3.469534 -0.844455
8.946518 3.434248 -0.842703
8.957264 3.406122 -0.842703
8.949863 3.369382 -0.840951
8.941738 3.334285 -0.839199
8.933478 3.299277 -0.837447
8.934444 3.267776 -0.836571
8.925935 3.232904 -0.834819
8.936047 3.204848 -0.834819
8.927298 3.170089 -0.833067
8.927814 3.138726 -0.832191
8.909405 3.100841 -0.829563
8.919104 3.072833 -0.829563
8.900428 3.035154 -0.826935
8.900479 3.003994 -0.826059
8.890977 2.969703 -0.824308
8.900263 2.941758 -0.824308
8.899993 2.910684 -0.823431
8.890138 2.876578 -0.821680
8.880155 2.842562 -0.819928
8.879545 2.811641 -0.819052
8.869322 2.777778 -0.817300
8.868489 2.746951 -0.816424
8.867550 2.716160 -0.815548
8.856972 2.682515 -0.813796
8.846270 2.648959 -0.812044
8.844996 2.618329 -0.811168
8.834509 2.583390 -0.809416
8.842581 2.555624 -0.809416
8.821830 2.519626 -0.806788
8.829702 2.491897 -0.806788
8.808700 2.456120 -0.804160
8.806769 2.425787 -0.803284
8.804734 2.395494 -0.802408
8.802595 2.365238 -0.801532
8.790727 2.332460 -0.799780
8.798011 2.304834 -0.799780
8.785920 2.272192 -0.798028
8.783362 2.242116 -0.797152
8.780704 2.212080 -0.796276
8.768275 2.179675 -0.794524
8.755730 2.147374 -0.792772
8.762433 2.119854 -0.792772
8.739980 2.085381 -0.790144
8.746488 2.057915 -0.790144
8.743561 2.026648 -0.789268
8.740173 1.996948 -0.788392
8.736686 1.967293 -0.787516
8.742823 1.939838 -0.787516
8.748873 1.912364 -0.787516
8.754838 1.884867 -0.787516
8.741227 1.853219 -0.785764
8.766508 1.829825 -0.787516
8.752699 1.798263 -0.785764
8.758305 1.770759 -0.785764
8.763824 1.743232 -0.785764
8.769258 1.715689 -0.785764
8.774604 1.688137 -0.785764
8.779864 1.660560 -0.785764
8.785038 1.632970 -0.785764
8.790125 1.605361 -0.785764
8.795125 1.577740 -0.785764
8.809847 1.551831 -0.786640
8.795048 1.520749 -0.784888
8.819424 1.496446 -0.786640
8.804430 1.465458 -0.784888
8.818822 1.439397 -0.785764
8.823299 1.411687 -0.785764
8.857216 1.388587 -0.788392
8.831996 1.356216 -0.785764
8.846064 1.329945 -0.786640
8.850198 1.302150 -0.786640
8.873965 1.277179 -0.788392
8.858205 1.246516 -0.786640
8.881815 1.221393 -0.788392
8.885817 1.191935 -0.788392
8.889517 1.164015 -0.788392
8.893129 1.136083 -0.788392
8.906541 1.109368 -0.789268
8.900093 1.080179 -0.788392
8.913335 1.053384 -0.789268
8.906525 1.025795 -0.788392
8.919603 0.998920 -0.789268
8.922867 0.969333 -0.789268
8.935774 0.942339 -0.790144
8.938690 0.914263 -0.790144
8.951431 0.887161 -0.791020
8.944258 0.858085 -0.790144
8.946910 0.829979 -0.790144
8.949473 0.801865 -0.790144
8.971798 0.775467 -0.791896
8.964262 0.746449 -0.791020
8.966563 0.718280 -0.791020
8.988640 0.691638 -0.792772
8.990769 0.663393 -0.792772
8.992808 0.635151 -0.792772
9.004698 0.607564 -0.793648
8.996622 0.578630 -0.792772
9.008337 0.550973 -0.793648
9.000079 0.522095 -0.792772
9.011621 0.494365 -0.793648
9.013130 0.466049 -0.793648
9.024500 0.438212 -0.794524
9.015881 0.409408 -0.793648
9.027075 0.381504 -0.794524
9.018274 0.352756 -0.793648
9.029294 0.324778 -0.794524
9.040226 0.296734 -0.795400
9.051071 0.268629 -0.796276
9.051870 0.240195 -0.796276
9.052580 0.211758 -0.796276
9.043241 0.183113 -0.795400
9.043772 0.154700 -0.795400
9.044213 0.126289 -0.795400
9.064487 0.098092 -0.797152
9.064762 0.068030 -0.797152
9.064931 0.039554 -0.797152
9.074972 0.011085 -0.798028
9.065001 -0.017404 -0.797152
9.064901 -0.045882 -0.797152
9.074674 -0.074442 -0.798028
9.074395 -0.102950 -0.798028
9.083987 -0.131602 -0.798904
9.083529 -0.160139 -0.798904
9.082981 -0.188675 -0.798904
9.072423 -0.215388 -0.798028
9.071701 -0.243889 -0.798028
9.090805 -0.272985 -0.799780
9.079947 -0.301213 -0.798904
9.078897 -0.331321 -0.798904
9.087766 -0.360236 -0.799780
9.086589 -0.388785 -0.799780
9.085322 -0.417329 -0.799780
9.093916 -0.446358 -0.800656
9.092468 -0.474925 -0.800656
9.100879 -0.504038 -0.801532
9.099250 -0.532627 -0.801532
9.097531 -0.561210 -0.801532
9.105664 -0.590433 -0.802408
9.103765 -0.619036 -0.802408
9.101775 -0.647633 -0.802408
9.099695 -0.676224 -0.802408
9.107458 -0.705578 -0.803284
9.115126 -0.734987 -0.804160
9.102845 -0.762787 -0.803284
9.110328 -0.792244 -0.804160
9.107794 -0.820861 -0.804160
9.105021 -0.851059 -0.804160
9.102303 -0.879659 -0.804160
9.099494 -0.908250 -0.804160
9.096596 -0.936833 -0.804160
9.103514 -0.966457 -0.805036
9.090530 -0.993969 -0.804160
9.107340 -1.023161 -0.805912
9.104081 -1.051768 -0.805912
9.110435 -1.083128 -0.806788
9.106987 -1.111744 -0.806788
9.113335 -1.141587 -0.807664
7.103987 -0.912562 -0.629838
7.160343 -0.942677 -0.635093
7.107985 -0.958511 -0.630713
0.000000 0.000000 0.000000
7.101822 -1.003152 -0.630713
7.019939 -1.012839 -0.623706
7.282806 -1.074133 -0.647357
7.308754 -1.102736 -0.649985
7.344635 -1.131760 -0.653489
7.341044 -1.154828 -0.653489
0.000000 0.000000 0.000000
0.000000 0.000000 0.000000
9.118077 -1.522571 -0.812920
8.985585 -1.529478 -0.801532
8.823695 -1.530462 -0.787516
8.612842 -1.521777 -0.769120
8.431544 -1.517074 -0.753352
8.250363 -1.511248 -0.737584
8.088890 -1.507950 -0.723569
7.937306 -1.505509 -0.710429
7.883631 -1.521002 -0.706049
7.849488 -1.540008 -0.703421
7.844612 -1.564661 -0.703421
7.829894 -1.587318 -0.702545
7.854140 -1.617938 -0.705173
7.712513 -1.614038 -0.692909
7.648941 -1.625833 -0.687653
7.624321 -1.645651 -0.685901
7.628844 -1.671728 -0.686777
7.633278 -1.697849 -0.687653
7.627907 -1.721821 -0.687653
7.641881 -1.750224 -0.689405
7.636344 -1.774223 -0.689405
7.630733 -1.798205 -0.689405
7.605668 -1.817538 -0.687653
7.570876 -1.834385 -0.685025
7.594098 -1.865289 -0.687653
7.626867 -1.898764 -0.691157
7.620864 -1.922715 -0.691157
7.585832 -1.939245 -0.688529
7.550773 -1.955575 -0.685901
7.506050 -1.969175 -0.682397
7.451689 -1.979956 -0.678017
7.397335 -1.990415 -0.673637
7.362211 -2.005789 -0.671009
7.279050 -2.007718 -0.664001
7.291896 -2.035934 -0.665753
7.304636 -2.064250 -0.667505
7.269382 -2.078971 -0.664877
7.234108 -2.093490 -0.662249
7.208375 -2.110608 -0.660497
7.220438 -2.140162 -0.662249
7.204137 -2.159974 -0.661373
7.168717 -2.173923 -0.658745
7.133281 -2.187671 -0.656117
7.060153 -2.188184 -0.649985
7.034233 -2.204395 -0.648233
7.007893 -2.221689 -0.646481
6.981906 -2.237613 -0.644729
6.964971 -2.257682 -0.643853
6.938911 -2.273349 -0.642101
6.865935 -2.272020 -0.635969
6.849316 -2.290420 -0.635093
6.889274 -2.327871 -0.639473
6.749944 -2.304444 -0.627210
6.695585 -2.309397 -0.622830
6.650670 -2.317310 -0.619326
6.671546 -2.348114 -0.621954
6.654750 -2.365725 -0.621078
6.637910 -2.383253 -0.620202
6.527376 -2.366743 -0.610566
6.641513 -2.431763 -0.621954
6.615154 -2.445708 -0.620202
6.570108 -2.452543 -0.616698
6.590335 -2.483710 -0.619326
6.563879 -2.497317 -0.617574
6.546702 -2.514354 -0.616698
6.548059 -2.538510 -0.617574
6.549328 -2.562699 -0.618450
6.513449 -2.572284 -0.615822
6.505336 -2.592734 -0.615822
6.515642 -2.620593 -0.617574
6.535069 -2.652287 -0.620202
6.499048 -2.661479 -0.617574
6.472241 -2.674275 -0.615822
6.445419 -2.686929 -0.614070
6.427763 -2.703303 -0.613194
6.410069 -2.719593 -0.612318
6.410652 -2.743636 -0.613194
6.392855 -2.759814 -0.612318
6.402420 -2.787838 -0.614070
6.384509 -2.803933 -0.613194
6.375669 -2.823976 -0.613194
6.375861 -2.848055 -0.614070
6.357800 -2.863980 -0.613194
6.357840 -2.888059 -0.614070
6.339679 -2.903870 -0.613194
6.285307 -2.902889 -0.608814
6.285187 -2.926825 -0.609690
6.257926 -2.938089 -0.607938
6.230658 -2.949211 -0.606186
6.185400 -2.951609 -0.602682
6.176096 -2.971027 -0.602682
6.184659 -2.999108 -0.604434
6.193106 -3.027272 -0.606186
6.192501 -3.051116 -0.607062
6.165040 -3.061694 -0.605310
6.164300 -3.085506 -0.606186
6.092319 -3.073449 -0.600054
6.073214 -3.089118 -0.599178
6.045750 -3.099094 -0.597426
6.071933 -3.135301 -0.600930
6.035543 -3.140566 -0.598302
5.990357 -3.141008 -0.594798
5.945229 -3.141197 -0.591294
5.952918 -3.169222 -0.593046
5.890262 -3.159654 -0.587790
5.959178 -3.220771 -0.595674
5.940282 -3.234713 -0.594798
5.921357 -3.248568 -0.593922
5.919840 -3.271973 -0.594798
5.857312 -3.261477 -0.589542
5.812285 -3.260368 -0.586038
5.758650 -3.254108 -0.581658
5.722427 -3.257399 -0.579030
5.686240 -3.260496 -0.576402
5.615586 -3.243467 -0.570270
5.639811 -3.281130 -0.573774
5.612285 -3.288760 -0.572022
5.627662 -3.321565 -0.574650
5.591511 -3.323957 -0.572022
5.572495 -3.336390 -0.571146
5.544924 -3.343592 -0.569394
5.508849 -3.345483 -0.566766
5.532304 -3.383563 -0.570270
5.496202 -3.385254 -0.567642
5.468609 -3.392003 -0.565890
5.449477 -3.403889 -0.565014
5.464053 -3.436904 -0.567642
5.411151 -3.427401 -0.563262
5.417154 -3.455097 -0.565014
5.397892 -3.466716 -0.564138
5.361879 -3.467428 -0.561510
5.376614 -3.499624 -0.564138
5.432246 -3.560181 -0.571146
5.362833 -3.538824 -0.565014
5.459553 -3.627318 -0.576402
5.522649 -3.694301 -0.584286
5.486228 -3.694938 -0.581658
5.440970 -3.690742 -0.578154
5.429348 -3.707818 -0.578154
5.335588 -3.668419 -0.569394
5.389563 -3.730519 -0.576402
5.362123 -3.735106 -0.574650
5.366674 -3.763372 -0.576402
5.338549 -3.768723 -0.574650
5.326683 -3.785476 -0.574650
5.266153 -3.767416 -0.569394
5.246208 -3.778119 -0.568518
5.226248 -3.788736 -0.567642
5.214319 -3.805136 -0.567642
5.202339 -3.821498 -0.567642
5.182298 -3.831900 -0.566766
5.170234 -3.848162 -0.566766
5.166092 -3.870358 -0.567642
5.138000 -3.874573 -0.565890
5.141672 -3.902741 -0.567642
5.145217 -3.930970 -0.569394
5.117049 -3.934970 -0.567642
5.112539 -3.957124 -0.568518
5.100082 -3.973166 -0.568518
5.064058 -3.970729 -0.565890
5.059378 -3.992789 -0.566766
5.054610 -4.014860 -0.567642
5.041972 -4.030720 -0.567642
5.037045 -4.052784 -0.568518
5.001064 -4.049782 -0.565890
5.003760 -4.078060 -0.567642
4.975520 -4.081124 -0.565890
4.939627 -4.077710 -0.563262
4.934455 -4.099574 -0.564138
4.944478 -4.134225 -0.566766
4.893355 -4.117669 -0.562386
4.910802 -4.158772 -0.565890
4.859805 -4.141872 -0.561510
4.831646 -4.144148 -0.559758
4.795980 -4.139780 -0.557130
4.775431 -4.148293 -0.556254
4.754875 -4.156719 -0.555378
4.764231 -4.191376 -0.558006
4.736123 -4.193116 -0.556254
4.745239 -4.227854 -0.558882
4.761601 -4.269341 -0.562386
4.740769 -4.277606 -0.561510
4.749432 -4.312568 -0.564138
4.743214 -4.334187 -0.565014
4.744240 -4.362552 -0.566766
4.774380 -4.418029 -0.572022
4.811508 -4.480528 -0.578154
4.855558 -4.550114 -0.585162
4.855735 -4.579014 -0.586914
4.805196 -4.559961 -0.582534
4.776438 -4.561275 -0.580782
4.711807 -4.527941 -0.574650
4.697558 -4.542722 -0.574650
4.740377 -4.613036 -0.581658
4.718744 -4.620935 -0.580782
4.690013 -4.621753 -0.579030
4.654250 -4.615421 -0.576402
4.625625 -4.615947 -0.574650
4.639217 -4.658691 -0.578154
4.582517 -4.630758 -0.572898
4.602870 -4.680645 -0.577278
4.588142 -4.695082 -0.577278
4.573370 -4.709473 -0.577278
4.558552 -4.723817 -0.577278
4.529900 -4.723735 -0.575526
4.508165 -4.730732 -0.574650
4.500130 -4.752104 -0.575526
4.486011 -4.765435 -0.575526
4.471017 -4.779505 -0.575526
4.435634 -4.771639 -0.572898
4.447658 -4.814820 -0.576402
4.412301 -4.806754 -0.573774
4.410604 -4.835311 -0.575526
4.395393 -4.849143 -0.575526
4.380137 -4.862927 -0.575526
4.371481 -4.884087 -0.576402
4.336256 -4.875466 -0.573774
4.333255 -4.904749 -0.575526
4.304681 -4.903366 -0.573774
4.277014 -4.901106 -0.572022
4.255069 -4.906992 -0.571146
4.194115 -4.867510 -0.565014
4.165845 -4.865529 -0.563262
4.176359 -4.908941 -0.566766
4.167347 -4.929645 -0.567642
4.164655 -4.957968 -0.569394
4.142674 -4.963379 -0.568518
4.165216 -5.022376 -0.573774
4.168423 -5.058499 -0.576402
4.152510 -5.071570 -0.576402
4.161703 -5.115499 -0.579906
4.164398 -5.151790 -0.582534
4.179383 -5.203681 -0.586914
4.156801 -5.208999 -0.586038
4.121849 -5.198615 -0.583410
4.111661 -5.219363 -0.584286
4.107523 -5.247944 -0.586038
4.170513 -5.363050 -0.597426
4.178005 -5.407657 -0.600930
4.160995 -5.420756 -0.600930
4.162067 -5.457565 -0.603558
4.132870 -5.454733 -0.601806
4.115713 -5.467690 -0.601806
4.171078 -5.575596 -0.612318
4.100063 -5.516715 -0.604434
4.076794 -5.521554 -0.603558
4.047644 -5.518270 -0.601806
4.012688 -5.506806 -0.599178
4.053781 -5.600078 -0.607938
4.065247 -5.653224 -0.612318
4.093789 -5.730814 -0.619326
4.104590 -5.784266 -0.623706
4.109354 -5.829701 -0.627210
4.056738 -5.793622 -0.621954
3.987324 -5.732736 -0.614070
4.014593 -5.810801 -0.621078
3.968136 -5.782316 -0.616698
3.686246 -5.407888 -0.575526
3.730672 -5.510179 -0.585162
3.657753 -5.439209 -0.576402
3.956023 -5.922844 -0.626334
0.000000 0.000000 0.000000
3.885846 -5.897674 -0.621078
3.861845 -5.901517 -0.620202
3.854142 -5.930326 -0.621954
3.819286 -5.917295 -0.619326
3.763047 -5.870559 -0.613194
3.765983 -5.915966 -0.616698
3.646242 -5.767786 -0.600054
3.691663 -5.880454 -0.610566
3.688981 -5.917382 -0.613194
3.655672 -5.902894 -0.610566
3.626673 -5.897379 -0.608814
3.622667 -5.934882 -0.611442
3.583351 -5.912158 -0.607938
3.564759 -5.923386 -0.607938
3.546134 -5.934556 -0.607938
3.537638 -5.962801 -0.609690
3.513832 -5.965302 -0.608814
3.474958 -5.941916 -0.605310
3.441268 -5.926959 -0.602682
3.417657 -5.929111 -0.601806
3.413856 -5.965756 -0.604434
3.390177 -5.967790 -0.603558
3.366518 -5.969734 -0.602682
3.324453 -5.936240 -0.598302
3.296108 -5.929241 -0.596550
3.272651 -5.930845 -0.595674
3.263574 -5.958570 -0.597426
3.215259 -5.916844 -0.592170
3.239214 -6.005825 -0.600054
3.221380 -6.015409 -0.600054
3.179090 -5.981518 -0.595674
3.132398 -5.938610 -0.590418
3.118346 -5.957247 -0.591294
3.154720 -6.073094 -0.601806
3.144753 -6.100684 -0.603558
3.143718 -6.146008 -0.607062
3.110868 -6.129205 -0.604434
3.087117 -6.130051 -0.603558
3.005507 -6.014965 -0.591294
2.995445 -6.042227 -0.593046
3.081965 -6.266140 -0.614070
3.071001 -6.293696 -0.615822
3.051213 -6.303313 -0.615822
3.035708 -6.321848 -0.616698
3.002981 -6.304373 -0.614070
2.987416 -6.322783 -0.614946
2.959083 -6.314097 -0.613194
2.936136 -6.313816 -0.612318
2.928802 -6.350147 -0.614946
2.917125 -6.377434 -0.616698
2.897075 -6.386567 -0.616698
2.881083 -6.404721 -0.617574
2.848774 -6.386448 -0.614946
2.848844 -6.440917 -0.619326
2.828595 -6.449836 -0.619326
2.808319 -6.458690 -0.619326
2.803787 -6.504072 -0.622830
2.791170 -6.531168 -0.624582
2.762866 -6.521560 -0.622830
2.715366 -6.465916 -0.616698
2.775431 -6.667544 -0.635093
2.720277 -6.593353 -0.627210
2.710860 -6.629528 -0.629838
2.708727 -6.684173 -0.634217
2.702564 -6.729625 -0.637721
2.681409 -6.738082 -0.637721
2.671190 -6.774274 -0.640349
2.653520 -6.791911 -0.641225
2.639361 -6.818794 -0.642977
2.625059 -6.845654 -0.644729
2.600003 -6.844555 -0.643853
2.585504 -6.871336 -0.645605
2.570862 -6.898094 -0.647357
2.556077 -6.924827 -0.649109
2.534309 -6.932823 -0.649109
0.000000 0.000000 0.000000
0.000000 0.000000 0.000000
2.486738 -7.002905 -0.653489
2.481246 -7.057671 -0.657869
2.468884 -7.093656 -0.660497
2.433607 -7.063704 -0.656993
2.243064 -6.581429 -0.611442
2.216010 -6.569565 -0.609690
2.308913 -6.916657 -0.641225
0.000000 0.000000 0.000000
2.344031 -7.167334 -0.663125
2.204967 -6.814508 -0.629838
2.192659 -6.849864 -0.632465
0.000000 0.000000 0.000000
0.000000 0.000000 0.000000
2.343163 -7.564859 -0.696413
2.322303 -7.581708 -0.697289
2.292697 -7.569899 -0.695537
2.251759 -7.519806 -0.690281
2.236607 -7.555499 -0.692909
2.193276 -7.495564 -0.686777
2.175253 -7.521555 -0.688529
2.061278 -7.212276 -0.659621
2.025073 -7.170784 -0.655241
2.013244 -7.215490 -0.658745
1.964095 -7.125745 -0.649985
1.942944 -7.131541 -0.649985
2.057711 -7.647439 -0.696413
2.031118 -7.644239 -0.695537
2.002037 -7.631311 -0.693785
1.978052 -7.637563 -0.693785
1.949114 -7.624437 -0.692033
1.927588 -7.640182 -0.692909
1.903577 -7.646200 -0.692909
1.886675 -7.681164 -0.695537
1.862535 -7.687054 -0.695537
1.838376 -7.692867 -0.695537
1.811914 -7.688909 -0.694661
1.785495 -7.684859 -0.693785
1.759120 -7.680721 -0.692909
1.734982 -7.686209 -0.692909
1.712989 -7.701346 -0.693785
1.690130 -7.706394 -0.693785
1.668016 -7.721403 -0.694661
1.642401 -7.726892 -0.694661
1.618119 -7.732014 -0.694661
1.590461 -7.727580 -0.693785
1.566177 -7.732538 -0.693785
1.545176 -7.746921 -0.694661
1.516994 -7.732186 -0.692909
1.487035 -7.707570 -0.690281
1.459100 -7.692629 -0.688529
1.440403 -7.726554 -0.691157
1.417917 -7.740839 -0.692033
1.396709 -7.754817 -0.692909
1.368870 -7.739547 -0.691157
1.346252 -7.753624 -0.692033
1.318541 -7.738175 -0.690281
1.294224 -7.742280 -0.690281
1.268284 -7.736477 -0.689405
1.240811 -7.720753 -0.687653
1.214999 -7.714772 -0.686777
1.190756 -7.718551 -0.686777
1.166502 -7.722254 -0.686777
1.143694 -7.735735 -0.687653
1.117959 -7.729431 -0.686777
1.096462 -7.752632 -0.688529
1.072100 -7.756038 -0.688529
1.045062 -7.739624 -0.686777
1.019440 -7.732993 -0.685901
0.992600 -7.716397 -0.684149
0.969594 -7.729361 -0.685025
0.944097 -7.722481 -0.684149
0.918655 -7.715518 -0.683273
0.893460 -7.698419 -0.681521
0.868154 -7.691289 -0.680645
0.845073 -7.703881 -0.681521
0.821921 -7.716403 -0.682397
0.797676 -7.718947 -0.682397
0.774415 -7.731327 -0.683273
0.749160 -7.723807 -0.682397
0.725822 -7.736040 -0.683273
0.700616 -7.728362 -0.682397
0.679807 -7.770219 -0.685901
0.656229 -7.782242 -0.686777
0.627748 -7.734621 -0.682397
0.605770 -7.766349 -0.685025
0.580625 -7.758280 -0.684149
0.556248 -7.760066 -0.684149
0.532548 -7.771713 -0.685025
0.505531 -7.733587 -0.681521
0.481232 -7.735137 -0.681521
0.457516 -7.746555 -0.682397
0.432621 -7.738008 -0.681521
0.410187 -7.749205 -0.682397
0.384850 -7.730557 -0.680645
0.358288 -7.711889 -0.678893
0.333197 -7.693072 -0.677141
0.311172 -7.713934 -0.678893
0.285455 -7.675055 -0.675389
0.260325 -7.646046 -0.672761
0.237534 -7.686653 -0.676265
0.213661 -7.697320 -0.677141
0.188743 -7.668077 -0.674513
0.165294 -7.698510 -0.677141
0.141289 -7.708951 -0.678017
0.116768 -7.689436 -0.676265
0.092730 -7.699726 -0.677141
0.068895 -7.739824 -0.680645
0.044579 -7.740002 -0.680645
0.020264 -7.740104 -0.680645
-0.004048 -7.730168 -0.679769
-0.028332 -7.730117 -0.679769
-0.052347 -7.690145 -0.676265
-0.077100 -7.749709 -0.681521
-0.101315 -7.739468 -0.680645
-0.125466 -7.729151 -0.679769
-0.149555 -7.718759 -0.678893
-0.172679 -7.728240 -0.679769
-0.196958 -7.727659 -0.679769
-0.222008 -7.707049 -0.678017
-0.245901 -7.696357 -0.677141
-0.268737 -7.695594 -0.677141
-0.295185 -7.754437 -0.682397
-0.319955 -7.763425 -0.683273
-0.344342 -7.762381 -0.683273
-0.368254 -7.751311 -0.682397
-0.392605 -7.750116 -0.682397
-0.416950 -7.748844 -0.682397
-0.441291 -7.747496 -0.682397
-0.463835 -7.716240 -0.679769
-0.488074 -7.714745 -0.679769
-0.509668 -7.673415 -0.676265
-0.533081 -7.661839 -0.675389
-0.557148 -7.660126 -0.675389
-0.582717 -7.678204 -0.677141
-0.606837 -7.676336 -0.677141
-0.634216 -7.714104 -0.680645
-0.656752 -7.692222 -0.678893
-0.683549 -7.719889 -0.681521
-0.708267 -7.737667 -0.683273
-0.730695 -7.715569 -0.681521
-0.760752 -7.772721 -0.686777
-0.783165 -7.750470 -0.685025
-0.800586 -7.668569 -0.678017
-0.827870 -7.695730 -0.680645
-0.858623 -7.752497 -0.685901
-0.880718 -7.729966 -0.684149
-0.907315 -7.746949 -0.685901
-0.928079 -7.714389 -0.683273
-0.953532 -7.721322 -0.684149
-0.981540 -7.747936 -0.686777
-1.005805 -7.754869 -0.687653
-1.031475 -7.761545 -0.688529
-1.053167 -7.738525 -0.686777
-1.070602 -7.685847 -0.682397
-1.097553 -7.702169 -0.684149
-1.126053 -7.728256 -0.686777
-1.148859 -7.714828 -0.685901
-1.168595 -7.681635 -0.683273
-1.198839 -7.717300 -0.686777
-1.224638 -7.723334 -0.687653
-1.248896 -7.719449 -0.687653
-1.273140 -7.715487 -0.687653
-1.302332 -7.740920 -0.690281
-1.314859 -7.668063 -0.684149
-1.335513 -7.644269 -0.682397
-1.366502 -7.679265 -0.685901
-1.395949 -7.704340 -0.688529
-1.420147 -7.699916 -0.688529
-1.442986 -7.695668 -0.688529
-1.467155 -7.691097 -0.688529
-1.493207 -7.696229 -0.689405
-1.519307 -7.701273 -0.690281
-1.539576 -7.676929 -0.688529
-1.581591 -7.759902 -0.696413
-1.601921 -7.735386 -0.694661
-1.622113 -7.710819 -0.692909
-1.640085 -7.676459 -0.690281
-1.659970 -7.651799 -0.688529
-1.681858 -7.636818 -0.687653
-1.718880 -7.689826 -0.692909
-1.734215 -7.645529 -0.689405
-1.751524 -7.610919 -0.686777
-1.768632 -7.576277 -0.684149
-1.801604 -7.609458 -0.687653
-1.832478 -7.632819 -0.690281
-1.854092 -7.617346 -0.689405
-1.870855 -7.582469 -0.686777
-1.889833 -7.557226 -0.685025
-1.920906 -7.580221 -0.687653
-1.937278 -7.545203 -0.685025
-1.971003 -7.577642 -0.688529
-1.997338 -7.581046 -0.689405
-2.021145 -7.574734 -0.689405
-2.044931 -7.568347 -0.689405
-2.066068 -7.552277 -0.688529
-2.095103 -7.564949 -0.690281
-2.117539 -7.558699 -0.690281
-2.135840 -7.532842 -0.688529
-2.159495 -7.526095 -0.688529
-2.191460 -7.547974 -0.691157
-2.223586 -7.569724 -0.693785
-2.241680 -7.543603 -0.692033
-2.279705 -7.584224 -0.696413
-2.318008 -7.624679 -0.700793
-2.327313 -7.569750 -0.696413
-2.359956 -7.590939 -0.699041
-2.368855 -7.535972 -0.694661
-2.392518 -7.528493 -0.694661
-2.414844 -7.521361 -0.694661
-2.438462 -7.513737 -0.694661
-2.466471 -7.515075 -0.695537
-2.502613 -7.545109 -0.699041
-2.518117 -7.508435 -0.696413
-2.532101 -7.472183 -0.693785
-2.563937 -7.492912 -0.696413
-2.593973 -7.503650 -0.698165
-2.593247 -7.430084 -0.692033
-2.626513 -7.450086 -0.694661
-2.649904 -7.441798 -0.694661
-2.673271 -7.433435 -0.694661
-2.703412 -7.443727 -0.696413
-2.716493 -7.407140 -0.693785
-2.750128 -7.426594 -0.696413
-2.766468 -7.399257 -0.694661
-2.789701 -7.390529 -0.694661
-2.809357 -7.372419 -0.693785
-2.813345 -7.317562 -0.689405
-2.832716 -7.299400 -0.688529
-2.884700 -7.364668 -0.695537
-2.918809 -7.383361 -0.698165
-2.923533 -7.327893 -0.693785
-2.965141 -7.364876 -0.698165
-3.007010 -7.401670 -0.702545
-3.026472 -7.382969 -0.701669
-3.057265 -7.391835 -0.703421
-3.095817 -7.418967 -0.706925
-3.099783 -7.363298 -0.702545
-3.177414 -7.481890 -0.714809
-3.196982 -7.462714 -0.713933
-3.212508 -7.434345 -0.712181
-3.243807 -7.442480 -0.713933
-3.283208 -7.468729 -0.717437
-3.302619 -7.449271 -0.716561
-3.326005 -7.438859 -0.716561
-3.373925 -7.482861 -0.721817
-3.397416 -7.472225 -0.721817
-3.420875 -7.461514 -0.721817
-3.427579 -7.414562 -0.718313
-3.476107 -7.457931 -0.723569
-3.469861 -7.383864 -0.717437
-3.501571 -7.390932 -0.719189
-3.507600 -7.343939 -0.715685
-3.547941 -7.368784 -0.719189
-3.566724 -7.348640 -0.718313
-3.601639 -7.364872 -0.720941
-3.598333 -7.299911 -0.715685
-3.638979 -7.324255 -0.719189
-3.670892 -7.330600 -0.720941
-3.698392 -7.327924 -0.721817
-3.725910 -7.325149 -0.722693
-3.744360 -7.304543 -0.721817
-3.781006 -7.319294 -0.724445
-3.828263 -7.350892 -0.728824
-3.851338 -7.338829 -0.728824
-3.914991 -7.406632 -0.736708
-3.910144 -7.341542 -0.731452
-3.952031 -7.364332 -0.734956
-3.975147 -7.351880 -0.734956
-4.002988 -7.348104 -0.735832
-4.026053 -7.335492 -0.735832
-4.058720 -7.340242 -0.737584
-4.057522 -7.283943 -0.733204
-4.114510 -7.331970 -0.739336
-4.127718 -7.301665 -0.737584
-4.160496 -7.305974 -0.739336
-4.193342 -7.310149 -0.741088
-4.210031 -7.289048 -0.740212
-4.237919 -7.284396 -0.741088
-4.265818 -7.279642 -0.741964
-4.313983 -7.309098 -0.746344
-4.333106 -7.286191 -0.745468
-4.350857 -7.263996 -0.744592
-4.378801 -7.258821 -0.745468
-4.422272 -7.279084 -0.748972
-4.443850 -7.265930 -0.748972
-4.487552 -7.285861 -0.752476
-4.547174 -7.330983 -0.758608
-4.559627 -7.299765 -0.756856
-4.593145 -7.302269 -0.758608
-4.621394 -7.296218 -0.759484
-4.681790 -7.340454 -0.765616
-4.720977 -7.350855 -0.768244
-4.738637 -7.327624 -0.767368
-4.756199 -7.304352 -0.766492
-4.779123 -7.289374 -0.766492
-4.823952 -7.307578 -0.769996
-4.845613 -7.293232 -0.769996
-4.879577 -7.294534 -0.771748
-4.887042 -7.253528 -0.769120
-4.898622 -7.221652 -0.767368
-4.921286 -7.206226 -0.767368
-4.960832 -7.215355 -0.769996
-4.972134 -7.183354 -0.768244
-5.006070 -7.184043 -0.769996
-5.021642 -7.161003 -0.769120
-5.038370 -7.137053 -0.768244
-5.060765 -7.121190 -0.768244
-5.088908 -7.113358 -0.769120
-5.128697 -7.121584 -0.771748
-5.156890 -7.113503 -0.772624
-5.179213 -7.097267 -0.772624
-5.230969 -7.121104 -0.777004
-5.277006 -7.136674 -0.780508
-5.287505 -7.104078 -0.778756
-5.357580 -7.151211 -0.785764
-5.392015 -7.150251 -0.787516
-5.426496 -7.149147 -0.789268
-5.454978 -7.139977 -0.790144
-5.501671 -7.154392 -0.793648
-5.536315 -7.152828 -0.795400
-5.564881 -7.143259 -0.796276
-5.587294 -7.125742 -0.796276
-5.628168 -7.131611 -0.798904
-5.681522 -7.152897 -0.803284
-5.696502 -7.128226 -0.802408
-5.731354 -7.125819 -0.804160
-5.761220 -7.114517 -0.805036
-5.789838 -7.104103 -0.805912
-5.856349 -7.139793 -0.812044
-5.897777 -7.144407 -0.814672
-5.945654 -7.156493 -0.818176
-5.968110 -7.137777 -0.818176
-5.989260 -7.120039 -0.818176
-6.050217 -7.146805 -0.823431
-6.092021 -7.150510 -0.826059
-6.140389 -7.161587 -0.829563
-6.182384 -7.164886 -0.832191
0.000000 0.000000 0.000000
0.000000 0.000000 0.000000
0.000000 0.000000 0.000000
0.000000 0.000000 0.000000
0.000000 0.000000 0.000000
0.000000 0.000000 0.000000
0.000000 0.000000 0.000000
0.000000 0.000000 0.000000
0.000000 0.000000 0.000000
0.000000 0.000000 0.000000
0.000000 0.000000 0.000000
0.000000 0.000000 0.000000
0.000000 0.000000 0.000000
0.000000 0.000000 0.000000
0.000000 0.000000 0.000000
0.000000 0.000000 0.000000
0.000000 0.000000 0.000000
0.000000 0.000000 0.000000
0.000000 0.000000 0.000000
0.000000 0.000000 0.000000
0.000000 0.000000 0.000000
0.000000 0.000000 0.000000
0.000000 0.000000 0.000000
0.000000 0.000000 0.000000
0.000000 0.000000 0.000000
0.000000 0.000000 0.000000
0.000000 0.000000 0.000000
0.000000 0.000000 0.000000
0.000000 0.000000 0.000000
0.000000 0.000000 0.000000
0.000000 0.000000 0.000000
0.000000 0.000000 0.000000
0.000000 0.000000 0.000000
0.000000 0.000000 0.000000
0.000000 0.000000 0.000000
0.000000 0.000000 0.000000
0.000000 0.000000 0.000000
0.000000 0.000000 0.000000
0.000000 0.000000 0.000000
0.000000 0.000000 0.000000
0.000000 0.000000 0.000000
0.000000 0.000000 0.000000
0.000000 0.000000 0.000000
0.000000 0.000000 0.000000
0.000000 0.000000 0.000000
0.000000 0.000000 0.000000
0.000000 0.000000 0.000000
0.000000 0.000000 0.000000
0.000000 0.000000 0.000000
0.000000 0.000000 0.000000
0.000000 0.000000 0.000000
0.000000 0.000000 0.000000
0.000000 0.000000 0.000000
0.000000 0.000000 0.000000
0.000000 0.000000 0.000000
0.000000 0.000000 0.000000
0.000000 0.000000 0.000000
0.000000 0.000000 0.000000
0.000000 0.000000 0.000000
0.000000 0.000000 0.000000
0.000000 0.000000 0.000000
0.000000 0.000000 0.000000
0.000000 0.000000 0.000000
0.000000 0.000000 0.000000
0.000000 0.000000 0.000000
0.000000 0.000000 0.000000
0.000000 0.000000 0.000000
0.000000 0.000000 0.000000
0.000000 0.000000 0.000000
0.000000 0.000000 0.000000
0.000000 0.000000 0.000000
0.000000 0.000000 0.000000
0.000000 0.000000 0.000000
0.000000 0.000000 0.000000
0.000000 0.000000 0.000000
0.000000 0.000000 0.000000
0.000000 0.000000 0.000000
0.000000 0.000000 0.000000
0.000000 0.000000 0.000000
0.000000 0.000000 0.000000
0.000000 0.000000 0.000000
0.000000 0.000000 0.000000
0.000000 0.000000 0.000000
0.000000 0.000000 0.000000
0.000000 0.000000 0.000000
0.000000 0.000000 0.000000
0.000000 0.000000 0.000000
0.000000 0.000000 0.000000
0.000000 0.000000 0.000000
0.000000 0.000000 0.000000
0.000000 0.000000 0.000000
0.000000 0.000000 0.000000
0.000000 0.000000 0.000000
0.000000 0.000000 0.000000
0.000000 0.000000 0.000000
0.000000 0.000000 0.000000
0.000000 0.000000 0.000000
0.000000 0.000000 0.000000
0.000000 0.000000 0.000000
0.000000 0.000000 0.000000
0.000000 0.000000 0.000000
